# .PCD v.7 - Point Cloud Data file format
VERSION .7
FIELDS x y z
SIZE 4 4 4
TYPE F F F
COUNT 1 1 1
WIDTH 1071
HEIGHT 1
VIEWPOINT 0 0 0 1 0 0 0
POINTS 1071
DATA ascii
0.24394992575714847 -0.5 0.19120736630396507
0.4863503970649048 -0.5 -0.19132428413120295
0.4194706200430618 -0.5 -0.36404701949778484
1.380915434633913 -0.5 0.3747949651569945
0.5408705768228372 -0.5 -0.09151869213169206
0.8978677470636243 -0.5 0.032029379958231075
1.365798321185067 -0.5 -0.21549996528191806
0.8292408720952233 -0.5 0.22530167893580588
0.17994166736031292 -0.5 0.321317129696582
1.3793584736356137 -0.5 0.15446005262860396
0.5638117182349884 -0.5 -0.05900403305259405
0.11527365614441831 -0.5 0.3438748249341509
0.2824306958769742 -0.5 0.26210149086994106
0.8038114148329192 -0.5 0.4814601568451936
1.237818806416257 -0.5 -0.11830348882289154
-0.16413828575303824 -0.5 -0.15406235924367717
0.033986415021209915 -0.5 -0.1941782779131368
0.4806222347281386 -0.5 -0.08831691114714746
-0.14596163522797556 -0.5 -0.06871337819319367
0.6087403362744443 -0.5 0.17320032717758171
0.8785273038583881 -0.5 0.011586346182265728
0.35807225919688657 -0.5 -0.030571053505127455
0.4991918756409759 -0.5 0.07803637030072408
1.4954699966176461 -0.5 0.09905990353714123
0.4701446387631898 -0.5 0.04263473080011804
0.6946933658303842 -0.5 -0.005238223742795478
1.0463720814730895 -0.5 -0.1548306992459546
0.22363290858150386 -0.5 -0.4641262514042849
-0.18931704753616962 -0.5 -0.4640661820382064
0.433945321312351 -0.5 0.2542075362848807
0.24596854894925801 -0.5 0.02320893660671053
-0.44350423845308273 -0.5 0.3694780708078016
1.2342928997168559 -0.5 0.045971465413198964
-0.3958275416400139 -0.5 0.14528797768143753
0.7661987208280165 -0.5 0.32578829743605286
-0.4198072584082342 -0.5 0.23956778261264944
0.43995919290527685 -0.5 0.4842173540452477
-0.2007305166701312 -0.5 0.42798471149068784
0.4371691242069211 -0.5 0.36660483564757174
0.6447109316043853 -0.5 -0.19005570590012066
0.7826327884645217 -0.5 0.2567520232329443
-0.44584167741249225 -0.5 -0.46004342292266664
0.7338458971038693 -0.5 0.3626111592318174
0.06083661953894537 -0.5 -0.08553258052326518
0.05928621626197028 -0.5 -0.10592606687456152
0.6427485731033877 -0.5 -0.05319326686441361
0.8540675658230312 -0.5 0.34294339036849253
0.1030094704587794 -0.5 -0.2973991238047925
0.8630039987125462 -0.5 -0.10361585433895482
0.6867331526033256 -0.5 -0.014512244028324961
0.6973214851654028 -0.5 0.09163688514118462
0.09319911910197187 -0.5 0.2978421527126591
0.11743617818969976 -0.5 -0.3308411885254814
0.02008703412001922 -0.5 0.4289323920585538
0.7224193530225147 -0.5 -0.26702194726455886
1.2426002948085675 -0.5 0.041484624447651774
0.6108641498027303 -0.5 0.1323786639036647
0.9508236910823826 -0.5 -0.2743445377526239
-0.10078799165738794 -0.5 -0.38189294836500665
-0.4190432346884012 -0.5 0.0703012261685041
1.1843624504967147 -0.5 -0.18174972080281404
1.2058942669896182 -0.5 -0.017816037078385527
0.5382270201700079 -0.5 -0.07876114250987054
1.1764287079693279 -0.5 -0.193148746302935
1.3928372646219456 -0.5 -0.22679545380241262
-0.38907863015863753 -0.5 0.011893382439888578
1.338127077782916 -0.5 -0.33610003949535494
0.6252445701248992 -0.5 -0.48992714845660057
1.3218634586530589 -0.5 0.1273062523083961
0.2884183977062167 -0.5 -0.44587020375265185
1.0471697353198814 -0.5 0.12778443576588572
1.4469074729033526 -0.5 -0.16167742987141298
0.9832344113186036 -0.5 0.26900026116321274
0.4588957106711846 -0.5 0.45308479404401936
0.5900817109242349 -0.5 -0.2863281501898236
-0.26566830032636757 -0.5 -0.0907453568404466
0.2304508694936085 -0.5 0.2545709160323628
1.1517259603400054 -0.5 0.1451163457328637
1.4756599597487574 -0.5 -0.3445178640656943
0.6785620509990999 -0.5 -0.39497445257875985
1.3696750999494223 -0.5 -0.323671221794654
0.7122048102389187 -0.5 0.07443829820997516
-0.2648038785464544 -0.5 -0.05536200279324166
1.4220105746828384 -0.5 -0.1738044450003572
1.280119246713323 -0.5 0.30570486381133
1.3413932968915265 -0.5 -0.4931216734508417
0.4283490485762327 -0.5 0.007867264668042107
1.266519369994051 -0.5 -0.35474077799582837
1.3321357579283268 -0.5 -0.33606909882481106
1.1448902951573936 -0.5 -0.28766207959423684
-0.2961847157641915 -0.5 0.17094851421156687
-0.2988954834295616 -0.5 -0.04558204310532454
0.14031695244000253 -0.5 -0.25954789388946664
0.02598695838157261 -0.5 -0.29219515089208403
1.2506267764039103 -0.5 0.3286598478734599
0.5808821251155913 -0.5 -0.4782394631447219
-0.4517164464252754 -0.5 -0.013666014107047153
-0.06359433444418205 -0.5 0.29485251824659764
0.511131509690743 -0.5 -0.3398355222249839
0.23950975761098237 -0.5 0.007596613528054741
1.3629277809172717 -0.5 0.3398522929275848
0.7267382127209256 -0.5 0.38720337630143264
0.14572477386349392 -0.5 0.28682276370603443
0.002510654152269254 -0.5 0.2630522241393085
1.498437608819713 -0.5 -0.31194602394910653
1.1409198871901318 -0.5 0.23237437292248175
0.6302180673087281 -0.5 0.492615137939477
-0.06607943999788746 -0.5 0.11748243059533947
-0.446098249565799 -0.5 0.09761329299081556
1.0858203866459617 -0.5 -0.3855602400179384
-0.3511220091771228 -0.5 0.088991363666308
-0.2779401909022192 -0.5 -0.0700883484892284
1.2321277587875428 -0.5 -0.04282440302793655
-0.4996350786779118 -0.5 0.24174943798522697
-0.4634305957398601 -0.5 -0.0218049615623086
1.032622708364901 -0.5 -0.3350491778359995
0.9215419959625519 -0.5 -0.37120929908799505
-0.32393785884464354 -0.5 -0.47461579020971
0.2110618851865791 -0.5 -0.32982512086776694
1.0162728542169759 -0.5 -0.20578403282615165
1.073247768258827 -0.5 0.4045517371610019
0.13823619627989103 -0.5 -0.49386090919823056
-0.2717882873919697 -0.5 0.4012049600216354
1.0285350713657704 -0.5 0.335902064069619
0.14628892428349172 -0.5 0.18529314512098016
0.4272625180751499 -0.5 -0.034854504188273405
0.9956550739587964 -0.5 0.010185078083011612
1.0035183164841162 -0.5 0.3431823905952227
0.8154240157014054 -0.5 0.21035353316809835
0.8324357990739082 -0.5 0.11940642123860068
1.3160250868115597 -0.5 0.01853027245100991
0.9433174325964369 -0.5 -0.39320067360449895
0.07964581994845554 -0.5 0.3448705555336934
-0.37916792221242424 -0.5 -0.13552107039490713
0.19764804903514155 -0.5 -0.10627743628988662
0.14769587130650086 -0.5 -0.24747040667660958
0.1957494168588898 -0.5 -0.4964624313581112
1.0480026754995495 -0.5 0.46128869701165787
0.019962571699926768 -0.5 0.37296382679163187
-0.05562787648010126 -0.5 0.008962428530064459
0.7775358318430967 -0.5 0.21736249929414064
1.2741942811833245 -0.5 0.4468296438015995
0.04426014523086552 -0.5 -0.2979426457995197
-0.1500429992706218 -0.5 0.22721015901747588
0.8990475992608487 -0.5 0.23172270056675803
0.9344097470471029 -0.5 -0.2913981881406298
0.5310367188517355 -0.5 -0.37596883108972823
0.46417213737731355 -0.5 0.1909896911371265
0.29901209136284623 -0.5 -0.43355995393007474
-0.015126176588082352 -0.5 0.4878595647981283
0.5642321666913246 -0.5 -0.2987008150259022
0.1756708980847208 -0.5 -0.1603787631975232
1.409706828766671 -0.5 0.30825446324878425
-0.3445269265584334 -0.5 0.05252292644998957
0.7147288516039236 -0.5 0.024483125791571414
1.0803353529266617 -0.5 -0.48914171634009707
-0.45942603492678935 -0.5 0.1171204457979792
0.3529862837392457 -0.5 0.029116384078607727
1.1474374950932644 -0.5 0.12483850183242151
0.7853261794237181 -0.5 -0.21546225021734777
0.2075166797935415 -0.5 0.3979276394504069
0.11628884073417622 -0.5 0.46416611052347034
0.0639993655803266 -0.5 0.03574457543589782
1.367625129726605 -0.5 0.17349346759115525
0.9618684231754056 -0.5 -0.4655178995838437
1.2649221455389035 -0.5 0.2118713449900569
0.11300903385756067 -0.5 -0.09475802414918033
0.08223225162467185 -0.5 -0.06817762579116926
-0.33682997950033533 -0.5 0.27649400437807425
-0.3590747075278158 -0.5 0.057406585533399945
0.8260599197020009 -0.5 0.10869166143989473
-0.18402838226427853 -0.5 -0.2689850557430199
0.1836720017156137 -0.5 -0.1096100720530514
1.0962719389650863 -0.5 0.22712912661241325
1.4089080858629026 -0.5 -0.2518375955424954
0.4163459019366713 -0.5 0.41787772721119953
0.6713767129065429 -0.5 0.15241763235468164
0.42547101706134915 -0.5 0.22730168608949342
0.19045237654587654 -0.5 0.42283329396617264
0.3234031303093443 -0.5 -0.10922428439347365
-0.2707436031535966 -0.5 0.0608585422511877
0.9856075129428368 -0.5 0.07214865065869769
0.8845820123263055 -0.5 0.4811322025360798
-0.08026574178725521 -0.5 0.35775971850801824
-0.07893867317848935 -0.5 0.3636129725788352
0.23356942911401135 -0.5 0.2355072310623736
0.856047220178678 -0.5 -0.17858672604896908
-0.2517601027789822 -0.5 0.4080052476232571
1.0635123947220664 -0.5 0.22231449774143397
0.07656636563719421 -0.5 -0.45462268419101626
-0.402235940897701 -0.5 -0.3898840221395524
-0.0702532390165187 -0.5 -0.1363949971228905
1.347428376351831 -0.5 -0.05637746502554353
0.45851313001508776 -0.5 0.18689382689422585
1.4660253165921824 -0.5 0.3857545098532782
1.1350153778933643 -0.5 -0.4562549077809722
-0.29807243669388894 -0.5 0.4997351138180506
-0.0534115192903053 -0.5 -0.12151490983778879
0.6769035583977983 -0.5 0.43054435975791483
0.47547504266325347 -0.5 0.282510354079442
0.14246212432597805 -0.5 0.18388723723222966
0.8229479905379262 -0.5 0.3668453706557244
0.21939963999997847 -0.5 -0.4715478040851695
0.9816814484248579 -0.5 -0.09575255660274651
-0.44851762566545306 -0.5 0.09909181661844368
0.2498482964106512 -0.5 0.10740930126400217
-0.24604750148711685 -0.5 -0.15327293127050323
1.1300562863488208 -0.5 -0.016522908530413716
1.4828012002228885 -0.5 0.3265153916609559
0.5811548548595904 -0.5 0.28100243799407065
-0.2712187910779682 -0.5 -0.11451066552838773
0.36159434210205554 -0.5 0.030067077669984954
1.4124451364093207 -0.5 0.430207342064861
-0.14754249054184343 -0.5 -0.41508032450477583
0.40079940664557445 -0.5 0.4724718103035038
-0.19770970263079013 -0.5 0.2394190895470807
0.6685443059522154 -0.5 0.36532152613433766
-0.25000056593495446 -0.5 -0.12106173188098823
1.2305641281331567 -0.5 0.1725392470352176
0.8712094285005008 -0.5 0.007908692602767164
1.118863875999217 -0.5 -0.0993952863808718
1.0434336512578297 -0.5 0.26306020418249987
1.1941120520065964 -0.5 0.34239462010321153
0.18173220835617587 -0.5 -0.3604261364531448
1.1843281678801474 -0.5 0.225698535666901
1.188479249229652 -0.5 0.03153622300631054
0.7304517230940253 -0.5 0.4283455036787518
1.4504635138493118 -0.5 0.18384585121978414
-0.38293145226645176 -0.5 -0.1588463131932759
1.3162942362474546 -0.5 0.25104126739807264
-0.17220820824698957 -0.5 -0.2560717434113343
0.5045126458968234 -0.5 -0.49341446900850405
0.9755659042483027 -0.5 0.3309661997470884
1.3735826418152004 -0.5 0.27531299509800233
0.2542892861559627 -0.5 -0.42888672349615553
0.3835552288545856 -0.5 0.3367101982193662
-0.4248792491521789 -0.5 -0.04213846940893462
-0.08330315532518906 -0.5 0.30347929789950534
0.34195290400092104 -0.5 -0.20520988672453389
0.5698990539083499 -0.5 -0.24332815637382454
0.8028136037080034 -0.5 -0.05686694500557543
0.5888213991623987 -0.5 -0.10177812544427356
-0.3303721918991849 -0.5 -0.46536475598164595
0.0442051397199259 -0.5 -0.13974998877301237
0.9944695087370723 -0.5 0.06640797805033383
0.5162731452486986 -0.5 -0.3836945517557995
-0.06092736411178379 -0.5 0.35225244406519696
0.6552139428041179 -0.5 0.18030794602835265
0.13208361548947134 -0.5 0.44258283787686903
0.4794555654430124 -0.5 0.05099204546360492
-0.41689152252482065 -0.5 0.1532372043935426
0.30409966674591704 -0.5 -0.20177345600383212
0.4093688575063492 -0.5 -0.25049010030917374
-0.15619826781294077 -0.5 -0.08314399068044243
1.2219711654342822 -0.5 0.12101068389247094
0.9636638997599614 -0.5 -0.30005470406081913
0.8453804330799839 -0.5 0.3714493283528204
0.061480723799596904 -0.5 -0.11821300473242757
-0.39034729367757937 -0.5 0.3717471202357453
0.6536740214304191 -0.5 0.1104301997230529
-0.2548058714330841 -0.5 0.13839881829876421
0.3818223031844217 -0.5 -0.0212698879897133
-0.25697621035632867 -0.5 0.3451061650579179
-0.45984024170656923 -0.5 0.30304515593402637
-0.04499875313357826 -0.5 -0.4533327496548104
-0.013442945845528076 -0.5 -0.23242456760624575
1.3147494535484976 -0.5 -0.021825882189228207
-0.0453305470822849 -0.5 0.42317999649660976
1.3462941463726756 -0.5 0.1441693638904996
0.8544905740994246 -0.5 -0.48687834614234293
0.29484645056353065 -0.5 0.22357501645397893
1.3052385601596725 -0.5 -0.4309387347555318
-0.2778349937452693 -0.5 0.26180224437008903
-0.14982358441144394 -0.5 -0.21502048134828
1.4235944338285216 -0.5 0.23625318871424228
1.2281381870219126 -0.5 0.1697719988540205
0.38479799850025564 -0.5 0.3861863710295026
1.4794070743371799 -0.5 -0.10438996150552604
-0.12072336909727022 -0.5 -0.05934858794894049
-0.303196239125763 -0.5 -0.10744964593222794
0.5767273363120531 -0.5 0.12245329765317314
0.8319103924308875 -0.5 -0.13817896374898042
0.45371749055444055 -0.5 -0.04156081037372994
-0.1274711465192293 -0.5 0.4866383293260882
0.8096931372528611 -0.5 -0.14127662334907576
1.3528868432471557 -0.5 0.4077058608395008
0.6512546467296683 -0.5 -0.11497875082266007
1.026171872720448 -0.5 0.21561067491684005
0.2232382248327458 -0.5 0.21660907813186137
1.3520762910861932 -0.5 -0.06364400941422488
0.5108753414734106 -0.5 -0.16545575769777432
1.2870391917649302 -0.5 0.3150805355841083
-0.48710852449397124 -0.5 -0.1933820862691612
0.03240602139099269 -0.5 0.03895840582738608
0.8976715514979536 -0.5 0.20719524172600912
0.011947039473638954 -0.5 -0.38817257470497224
1.2251748946135634 -0.5 -0.12054590774355156
0.8006612615358311 -0.5 0.021923647942392432
1.2699426167943564 -0.5 0.2527177079107864
1.4840738153162167 -0.5 -0.29593115361557787
-0.1700757561311197 -0.5 0.11212673768836001
1.3135122375377855 -0.5 0.4263047100308226
0.9508361563408292 -0.5 0.05434939505429692
0.3999214543275804 -0.5 0.007154540343792037
0.5660992264124627 -0.5 -0.3404910630680962
0.6177913428811785 -0.5 0.25870746121513133
0.02234126400628056 -0.5 0.07524516674869597
0.754222909749025 -0.5 0.4860183041790991
-0.32672034749602097 -0.5 0.12104131191873102
0.7511932770276886 -0.5 -0.23578225687826615
-0.257935489183833 -0.5 -0.19228592260846733
0.5946810151637816 -0.5 -0.04183541282320824
0.9700019333948993 -0.5 0.4145900883521496
0.07502459419798191 -0.5 0.4803865366288239
1.4139733986414824 -0.5 0.49182388080143435
-0.3072951271014548 -0.5 0.24508605005822226
-0.2934970313698435 -0.5 0.16188287581043392
1.2425071252089774 -0.5 -0.15717337777804652
-0.3473126917304725 -0.5 -0.4996963801541564
0.4225699737653761 -0.5 -0.3006919107503021
0.390202883599595 -0.5 0.06772416447072105
0.1525594545721578 -0.5 -0.4928334359205697
-0.2087731947607927 -0.5 0.3792093293309208
0.6210641676864945 -0.5 -0.3765931350888828
-0.14261003223388102 -0.5 0.29036820124200324
-0.46943215282436435 -0.5 -0.42666933724433964
1.18816150247749 -0.5 0.007226664993217113
0.9661085734325325 -0.5 -0.2676569016811119
0.38910948221983177 -0.5 -0.25559250259249333
0.33785237336615426 -0.5 0.333690981432915
-0.162476016040082 -0.5 -0.3283388519038535
-0.08639804868310175 -0.5 -0.2564398241468021
0.8176882253379658 -0.5 0.11316097003928915
1.4147732396017396 -0.5 -0.4102409293905783
1.2815134619190864 -0.5 0.24039122317260964
1.1697719345977868 -0.5 -0.341142147624114
-0.23996372796244558 -0.5 -0.024045060769797733
1.0848190172119476 -0.5 0.4175631467948765
1.4437930740055003 -0.5 -0.14054883941585283
0.5778213966519679 -0.5 0.3382821392889489
0.6792184721201755 -0.5 0.304670447657177
1.257231566683147 -0.5 -0.38584995331228666
0.6853693135155425 -0.5 0.35775858924483317
0.1720385728837217 -0.5 -0.12337340938417152
0.43089804793875963 -0.5 -0.04304883171345697
0.1764045486339112 -0.5 0.4918317922966421
0.05467899204485516 -0.5 0.21354141369799406
0.899504038288377 -0.5 0.33049936485615616
-0.23683585302679067 -0.5 -0.32230200222410443
0.6808239322658287 -0.5 0.3378136207410448
1.1346706145553584 -0.5 0.32510849351950133
0.7320398105021224 -0.5 -0.3322741359504131
0.44799780774105846 -0.5 0.1669467849236559
1.4747216496216244 -0.5 0.24601240895926213
-0.3331764520653373 -0.5 -0.15659230789506773
1.370027108580642 -0.5 0.15746448072379093
0.6521357131708632 -0.5 0.20136063730365072
0.01064224578882289 -0.5 -0.040829327000271975
0.11802596828704881 -0.5 -0.005797679858638105
0.21167117973872518 -0.5 -0.29123855425987266
0.2783224060579128 -0.5 0.2887756630440662
1.0867949345426142 -0.5 0.23670663611862874
0.3297450193188438 -0.5 -0.47055564112231707
1.4285220375243994 -0.5 0.39489333746801214
0.24493442201568438 -0.5 -0.34131766090494575
0.03395661145124751 -0.5 -0.4974219810005136
0.312275476328036 -0.5 -0.1264595659287555
1.3405179658203656 -0.5 0.16269554489765714
1.081060152996622 -0.5 -0.3645016909648998
0.16892694931427332 -0.5 0.3949495998909176
1.0001084946741445 -0.5 0.25677148868804234
-0.3253530907797104 -0.5 0.44042429040648123
0.9253987223975704 -0.5 -0.037444211935332095
0.283463239171718 -0.5 0.40683905125645436
0.04472760225874617 -0.5 0.2275808802173599
0.18748450735376299 -0.5 -0.01841790080620276
1.1605233555814944 -0.5 0.06707336730338653
0.22520220384804457 -0.5 -0.19764300009032443
0.6630640012007367 -0.5 0.47032430641750156
0.03313717537239791 -0.5 0.3592461070141395
0.0070975930826666644 -0.5 -0.4077344452298264
1.112045855299769 -0.5 0.3190410772180111
-0.37038459485686404 -0.5 0.21138598436898015
1.372248007489605 -0.5 0.04136388457757234
0.817039252115632 -0.5 -0.2760287581061688
0.408764905811992 -0.5 0.46755435866839845
0.8447625632073148 -0.5 0.3515179666933317
-0.4524958837926396 -0.5 0.3752443194222751
0.858395522388717 -0.5 -0.3586977791326925
-0.3263845857303822 -0.5 -0.31625658925627764
1.3900524819268165 -0.5 0.06147765695066976
0.8060148036152261 -0.5 0.2109134609976282
-0.2217502241979199 -0.5 -0.060474769074234214
1.2780695537861453 -0.5 -0.3715799334273606
1.3418041619839436 -0.5 -0.10910963840869548
0.3785850091745466 -0.5 -0.1763783088571328
-0.1657966800800894 -0.5 -0.41392959120175965
0.04111585975022791 -0.5 0.009129338293307865
1.408676434236198 -0.5 0.21102030517458814
-0.4100053230782028 -0.5 0.3651018860718235
1.4033858371008912 -0.5 -0.47524167423834607
-0.10407677678976035 -0.5 0.0772754740365349
0.4306655776798516 -0.5 -0.3789202744063228
0.6928189729657852 -0.5 -0.15255588303300027
1.1558990998191148 -0.5 0.02823393925124562
1.1054728953271888 -0.5 -0.08777525940711961
1.498676501448851 -0.5 0.2563607995821191
1.4675508905133667 -0.5 -0.03882946467843562
0.9195001808282595 -0.5 -0.31480114884289323
0.15223563617337454 -0.5 -0.2382188472964336
0.28972003497129495 -0.5 0.08668556586576626
1.4216126053768774 -0.5 -0.4888946737602571
-0.35461244974905504 -0.5 0.2739304775882083
0.20787024838725543 -0.5 0.027952153353695497
-0.34655871311072795 -0.5 -0.14254710973078255
0.02129973709604216 -0.5 -0.31823112567628964
0.7186382712444901 -0.5 0.38613084701769573
0.6429015858316036 -0.5 -0.4679832734581697
1.038054976216323 -0.5 0.3330024784100645
1.2624053160860162 -0.5 -0.31474263222505905
0.5130643639810508 -0.5 0.13740026451573795
0.9877350634594779 -0.5 -0.06349800249982696
0.6217370994584306 -0.5 0.05019149121828981
-0.02144797037593782 -0.5 -0.27552807002709145
-0.4921688029888258 -0.5 -0.07731834607109556
0.21322048733349974 -0.5 0.030163624322585125
1.4200571106106663 -0.5 -0.42798905568600865
0.020331954506336736 -0.5 0.130918223957583
1.0024323349320874 -0.5 0.044970534962127995
0.9490987065005909 -0.5 0.3057642856602293
-0.4945008815884009 -0.5 0.2001603710787626
0.544119601081078 -0.5 0.47943420707092
-0.2568635534504393 -0.5 0.306203179589591
0.93477579883981 -0.5 0.4472200914660187
-0.19600166559382393 -0.5 0.40404046481222256
-0.25257675067283003 -0.5 0.017787371322627532
0.6322033237359181 -0.5 0.20353585776107608
0.6434352992149619 -0.5 0.3562009577991462
0.7500924047266677 -0.5 0.12713676190709866
1.4888620152114762 -0.5 -0.30193731375592436
-0.24377877348844468 -0.5 -0.42121739545735515
0.44430828325788774 -0.5 0.4714293914996943
1.4843375245590822 -0.5 -0.15077414002921508
0.5453878937922374 -0.5 -0.2322486773776956
0.0982103910455836 -0.5 0.09168337531054083
0.14889910413370178 -0.5 0.008116960953908903
0.3184556175968549 -0.5 -0.3003573776143159
0.28986515360870735 -0.5 0.02453533394488805
-0.44049739567242385 -0.5 -0.45653490658249163
0.34257303373704295 -0.5 -0.3267434056011116
1.254956219319052 -0.5 0.0007440278060240058
0.3042316194101429 -0.5 0.25902105030476974
1.0346620366409738 -0.5 -0.16846787930045182
1.2503477462764458 -0.5 0.4228816306888131
-0.22298900554689616 -0.5 0.40031376368171134
0.9834477487683324 -0.5 0.4860841162180589
-0.3855619971466415 -0.5 -0.18894708028531038
0.9482755402641463 -0.5 0.3366487868238043
-0.011545140601944004 -0.5 -0.1534448725393126
-0.07128293083291792 -0.5 -0.25693684492724456
1.0264870018057246 -0.5 -0.3449577104198218
0.604479958551964 -0.5 -0.039433370720767025
0.4668754899207208 -0.5 -0.316137687983852
1.1825026116397677 -0.5 0.19059287653832213
0.1775138949825139 -0.5 0.2951712818845573
1.4018471653346156 -0.5 0.024422880824325865
0.4383103008858138 -0.5 -0.04789573918708956
0.9761125561234167 -0.5 -0.09778563858398981
-0.2921461350420447 -0.5 0.42742873246986646
1.4805016759282499 -0.5 0.2306891832722292
1.0442818974852528 -0.5 -0.45069850110555243
1.3143320766800972 -0.5 0.30942790056209457
1.2399404440403665 -0.5 -0.03611111837173475
1.1099757371849805 -0.5 0.04132824146909775
0.48450275617511984 -0.5 0.27474340886605986
0.03291135137409684 -0.5 -0.0701142388067898
0.35512749077978545 -0.5 0.4906836755344499
-0.23199219742642674 -0.5 0.11947174739923827
1.1659916240549584 -0.5 -0.3949619519630141
1.14217303252019 -0.5 -0.06771384794423929
1.1500091528869671 -0.5 -0.27505858270103445
-0.17543544605384453 -0.5 0.2511656718342318
-0.017217568896585655 -0.5 0.01662786935640137
0.6700920559551373 -0.5 0.07569069170257925
0.24000114955937168 -0.5 -0.45159570134736726
0.09943459837482238 -0.5 0.3034968517155169
-0.2536345638367741 -0.5 -0.26559472193743017
0.17191848718708513 -0.5 -0.40427641495580213
0.26998783207375254 -0.5 0.3108251882151575
-0.415164149325558 -0.5 0.23289801275242294
0.9146984846716224 -0.5 0.06345918647120807
-0.22908920430123536 -0.5 0.2014744173843589
0.47194261030034035 -0.5 0.2583298327513377
0.10221724130797738 -0.5 0.35111375150109436
-0.42703338395866663 -0.5 0.46073144426790247
-0.4821382523959208 -0.5 -0.20958410874793232
0.1423871480372525 -0.5 0.24577570551305195
0.7577825311283171 -0.5 -0.3449111144407997
1.128990372907762 -0.5 -0.13909715741898732
0.9745318377262648 -0.5 -0.17504415915855775
0.4601234411562958 -0.5 0.19668745324718484
-0.2325113031730337 -0.5 -0.1471881714934794
0.22357263951974704 -0.5 0.2780125170462988
0.6757403188464102 -0.5 0.27320906288433344
1.3863430411947841 -0.5 0.49289075338179344
-0.4497891279277959 -0.5 0.32579633798218466
0.24740893904119488 -0.5 0.060578137372653273
-0.09349735372770751 -0.5 0.09118380693912431
0.8219648674384088 -0.5 0.4527422490165204
0.35538771368578015 -0.5 0.019995437010201123
-0.1356841258014314 -0.5 0.1562611422818868
1.2092333789838174 -0.5 0.22392368227361215
0.015365667998097354 -0.5 -0.33353961223316064
1.3191034774997303 -0.5 0.04387610547260634
1.3715444803709393 -0.5 -0.1215983077825733
-0.49931804694996273 -0.5 0.34985894830279995
0.29123788635267567 -0.5 -0.154655643791078
0.6082751310043464 -0.5 0.24150736721166188
0.21790975381647715 -0.5 -0.03766796789198612
-0.45494576273671616 -0.5 -0.08737495192604783
0.6238014844669995 -0.5 -0.11073512136342745
0.99975707861234 -0.5 -0.09729493551421176
-0.3446509192090186 -0.5 -0.26474336465571235
0.6248061255450423 -0.5 0.009783859248821747
-0.1044631386981354 -0.5 -0.07884209217631843
0.05733822951564549 -0.5 -0.394576328494616
-0.3608062844277149 -0.5 -0.1796930324267978
-0.22501187581283721 -0.5 0.24839664345865953
-0.44844975537877163 -0.5 0.40276316440212967
0.804138896832705 -0.5 0.32442989409697875
0.8452941419999724 -0.5 0.3797567422231869
0.27453430456835837 -0.5 -0.36438906777533786
-0.22237266749057172 -0.5 -0.03431184444292401
1.3373056369167495 -0.5 0.25642967797641025
-0.008214813046340641 -0.5 -0.3779039540983745
1.1345351893245648 -0.5 0.09423592507939915
0.08138967996095348 -0.5 -0.11542574127304828
0.8957428522085065 -0.5 -0.4453615338211151
1.0232507666758748 -0.5 0.008919879931526875
0.2447447715510067 -0.5 0.4183422217296101
-0.1283599117170664 -0.5 -0.2111180956639892
0.2569935660393472 -0.5 0.11536598227573736
-0.21949694415015775 -0.5 -0.321002535541156
0.44072209458495926 -0.5 -0.46914324430061083
1.4087950656084307 -0.5 -0.4132736853027441
-0.13910980773371628 -0.5 0.21179655924774632
0.8559427810340554 -0.5 -0.40984263111841546
1.3705734676999985 -0.5 0.06996455353383224
0.6636260530399891 -0.5 0.34146474491620127
0.2786831320915133 -0.5 0.42202155981873
1.1147134219296646 -0.5 -0.28228845176258854
-0.11328728971392321 -0.5 -0.18461533116531614
-0.03591530006407795 -0.5 0.013356084001513002
0.13408061817496852 -0.5 -0.342456704494038
0.34066769144636244 -0.5 0.14133123613493104
0.7257786214387338 -0.5 0.4981801777381576
-0.3349731816005923 -0.5 -0.4808857113641125
0.9052860292484621 -0.5 -0.2064571755862018
-0.27202844087310285 -0.5 0.2865002422593358
1.4180156456548048 -0.5 0.3624882769018778
1.288496717954943 -0.5 -0.23676073099055606
-0.18195352013992228 -0.5 -0.010677034882494163
-0.340517933917003 -0.5 0.41428613451759744
0.7050411052804313 -0.5 0.04938010993588571
-0.32413254705653816 -0.5 -0.43957951078669655
-0.1793134000074097 -0.5 0.042448999817180866
0.5077910873761649 -0.5 -0.14546822293245298
0.07110481025110027 -0.5 0.43956235345062655
-0.18321833519229003 -0.5 -0.15180534025193992
0.866484979125324 -0.5 -0.45105155194497615
0.10785791592218019 -0.5 0.10409524370478929
1.0234694863955136 -0.5 -0.2886426113796403
0.028307297686116728 -0.5 0.025744398659587997
0.9506336726501159 -0.5 0.08012704363548173
-0.06203779684212862 -0.5 0.3273718850680505
1.2079788323847538 -0.5 -0.18011043982616837
-0.15433239767506368 -0.5 -0.3440714641819558
0.3040675431816027 -0.5 0.050767137981463484
0.460236010704391 -0.5 0.24277249664079958
1.312894990751287 -0.5 0.1291920795316649
0.039444160786089144 -0.5 -0.27810972644194043
0.8014026134293064 -0.5 -0.3584705376352656
4.7514038487239674e-05 -0.5 0.07282657593997233
1.2739490826229878 -0.5 0.14761644906052207
0.4516620960635578 -0.5 -0.4388310977398593
0.13694075522017446 -0.5 0.22867700320288276
0.6396036396546141 -0.5 0.2778477983678014
0.8530085694992684 -0.5 -0.03256678690897741
0.09556281044355286 -0.5 -0.27055008192130636
0.3769537251288919 -0.5 -0.48699443138081233
0.37436649402376454 -0.5 -0.4301685570231484
0.5210094389917637 -0.5 0.2931094635096104
0.4924565431066177 -0.5 0.2511135337624669
0.038080216337821104 -0.5 -0.013824004433870551
0.6333286607462072 -0.5 0.36649919851724366
1.0594838790392707 -0.5 0.48525922635832497
1.1979488859050298 -0.5 -0.0621117430080691
-0.1842694889531158 -0.5 -0.3681165217494229
-0.07598865093895135 -0.5 -0.2855806322609096
1.3574596118257276 -0.5 -0.45196967186527526
1.0490027266345117 -0.5 0.4132374446402395
-0.21371887515684662 -0.5 0.25991827566377357
0.24113199577527533 -0.5 -0.05979530133223432
-0.46288973175382586 -0.5 0.10937906790441088
-0.3546964063573559 -0.5 -0.38436007620250656
0.8557312580511187 -0.5 0.26286837466186186
1.2491690648043632 -0.5 0.24209711412603718
0.9386279532733435 -0.5 0.34602694408983703
1.3134265780498613 -0.5 0.17882435045272216
-0.012191383319313243 -0.5 0.12381911388511435
0.539908262318697 -0.5 0.0050169524173728774
1.2972782910283474 -0.5 -0.2054167410230613
-0.02695485680887777 -0.5 0.3024632304744247
1.438018054172787 -0.5 -0.30789740272312915
1.167630053507183 -0.5 -0.2570621574359174
1.207798631755326 -0.5 0.12444000079699669
-0.2506069375585156 -0.5 -0.42045749536436283
0.5594075513428283 -0.5 0.32211133237794287
1.2377126570444097 -0.5 -0.4787510505980843
1.0006367914540104 -0.5 0.466227171184193
1.2445592452009167 -0.5 -0.3688613506919999
1.4165852238011603 -0.5 -0.029343226803170475
-0.3110242828244192 -0.5 0.3114823883646777
0.24202330680834416 -0.5 0.21738091025046757
0.9861703056885067 -0.5 0.15180459832666493
0.14518192401933527 -0.5 0.4779494532912826
1.3478863974996182 -0.5 -0.46161383118366717
1.0253392878532552 -0.5 -0.387602359312639
0.016911692041938986 -0.5 -0.14333553434682234
0.8910243532338646 -0.5 -0.2456006310043859
-0.10281278092086943 -0.5 -0.22088748350387144
0.7442052218588542 -0.5 -0.4114876105207249
-0.16770258816980088 -0.5 -0.14861290936869798
-0.13945914379227364 -0.5 -0.08885691914959093
0.21499630679504955 -0.5 -0.44745825250651394
1.223843892455522 -0.5 -0.1705460545030112
0.3050974429546647 -0.5 0.1790285738140902
1.2669375011037483 -0.5 0.09948593181401277
-0.3747124896477694 -0.5 0.08062576832123547
0.1875878030528726 -0.5 -0.0979156149328243
0.9576046360439165 -0.5 0.1735846711003165
1.2601338500300439 -0.5 -0.3032034346013066
0.8700049123928519 -0.5 -0.3442906585168659
-0.44379056678991313 -0.5 0.21040124495289914
-0.06552009660836822 -0.5 0.09155691780248432
-0.1717018923358411 -0.5 0.4801765940474403
-0.39786334112092714 -0.5 0.012676811436027058
0.3055553614719626 -0.5 0.2079973909882401
0.8239014592571641 -0.5 -0.4972949277264357
0.9796011465382244 -0.5 -0.19783426113230684
-0.32459204346208503 -0.5 -0.10345827301318333
0.12066332311257755 -0.5 0.4460985098914253
0.1552833356509371 -0.5 0.2752931194489533
-0.4365406664645839 -0.5 0.337067589838866
0.12457931165739056 -0.5 -0.41189317539859915
0.757264760967248 -0.5 -0.23194130427849668
0.6620430368632535 -0.5 -0.06775968144772548
1.0038043646875905 -0.5 0.39154604663598536
1.0179213541578704 -0.5 0.20307472798033765
1.4864342964922095 -0.5 -0.475381803302769
1.111186784314023 -0.5 0.48546816187742314
0.27955597799888965 -0.5 0.12451217081370225
0.5244975950917774 -0.5 0.2839475991895879
-0.2951836579682827 -0.5 0.3395015617475946
0.9393099780576328 -0.5 0.3321513778695774
0.03046105708551572 -0.5 0.04361760335831566
0.43571593118782914 -0.5 -0.13707714378090807
0.022398599226736815 -0.5 0.2506574302801464
0.31016294301548286 -0.5 0.457332088097819
-0.25698605694004706 -0.5 -0.49663357285823284
1.0288086671665009 -0.5 -0.4706404625586358
0.29319148341585 -0.5 -0.10496607646234202
0.4999609835707335 -0.5 -0.39362013734953716
0.5021710924459719 -0.5 -0.09108614593035491
-0.005330926046076545 -0.5 -0.42738581836474765
-0.38024958806724296 -0.5 -0.11570745951759864
1.080693873515668 -0.5 -0.29960828537812045
0.8797615521881539 -0.5 -0.06470586940193412
1.4490693770817282 -0.5 0.058421088461000914
-0.11664341157446345 -0.5 0.18627326004245137
1.397472900741255 -0.5 0.48729774627082845
0.8166956920421704 -0.5 -0.07698562887329208
0.9436801061577365 -0.5 -0.4656731988467768
0.9755140953955952 -0.5 0.1539483042053531
0.8482706981806523 -0.5 0.3338375854751525
1.0849541351250092 -0.5 0.25092124445592856
0.20603765392996065 -0.5 0.08236852411689877
0.3193890136130919 -0.5 0.1883894028534664
0.30586813228608545 -0.5 0.21537886944745088
1.0708224156837514 -0.5 -0.004424997837806477
0.8712649785889601 -0.5 0.26371732136396053
0.4625186351105124 -0.5 0.4452485191297346
-0.3883512850545563 -0.5 -0.317264831474958
1.2603927951633342 -0.5 -0.24637220521329395
-0.15850789010289557 -0.5 0.05303503564558665
0.21298823601558214 -0.5 0.1616566103189091
-0.343231295259834 -0.5 0.051643819460567286
1.1907763824456594 -0.5 -0.36837663862545844
0.8883038226172599 -0.5 -0.18948381839785522
-0.07024645863247381 -0.5 -0.405338194776115
0.27039755121393405 -0.5 -0.04065690054706406
0.47487171430633324 -0.5 -0.09885592808484645
0.033379084974628936 -0.5 0.2674240492798676
1.18185878328821 -0.5 -0.16239477125953605
0.6213143347291703 -0.5 -0.43095849757800386
-0.0876051593382221 -0.5 -0.3529034591679442
1.4098858906005598 -0.5 -0.025076843110162672
0.294171011274013 -0.5 -0.13287551692275346
0.07117260399295455 -0.5 -0.49036663600054053
0.5994073910875106 -0.5 0.053941391653016146
0.3677266249687168 -0.5 -0.35062049610056534
0.942145793105029 -0.5 -0.18569829361923218
0.14358102435163222 -0.5 -0.4997767276137982
-0.4355417715605834 -0.5 -0.1847334455095686
0.46489754152198115 -0.5 0.24851439919952323
0.2273764519843151 -0.5 -0.42519367729162516
0.8025192974113431 -0.5 -0.018657442617732167
1.2398892374731916 -0.5 0.22352742095005707
-0.4902049038027749 -0.5 0.1286106867696175
-0.26044573551386807 -0.5 0.34610922881701245
0.8469034356777809 -0.5 0.25670984169020306
1.0956694740996085 -0.5 0.05814186315713554
1.1440773212978028 -0.5 -0.48263163456553115
-0.30981192298240345 -0.5 0.06871255007858912
1.2573106227921185 -0.5 -0.20575300498141835
0.6008850540093087 -0.5 -0.24093572930621998
0.3073376228018361 -0.5 -0.033070018710133486
1.3703943082358259 -0.5 -0.048879628859077595
-0.04834285780873615 -0.5 -0.006485284664225155
-0.2206891194895717 -0.5 0.32857929388639195
1.3636089252818573 -0.5 -0.029990701614447834
0.7813996604364164 -0.5 0.3211374606007772
0.5768224323960838 -0.5 -0.35918955686949994
0.8582622807396665 -0.5 -0.35502562025019213
1.475829779198166 -0.5 -0.3005704914223861
-0.1470454779274697 -0.5 0.3956466053593234
1.18961998185139 -0.5 -0.4247447401035932
-0.3398260426371398 -0.5 0.1855485596924753
1.1084418327978924 -0.5 -0.31530321122973437
0.28092915587389755 -0.5 -0.400194815077898
0.8211390925881181 -0.5 -0.1633815759032955
1.2507656477470694 -0.5 0.4246225008646022
-0.12996829718838665 -0.5 0.012762446703661778
0.3344143867421099 -0.5 0.19071148963161277
-0.35389111826064656 -0.5 0.28692977012670184
0.178709522510059 -0.5 -0.06659780340155486
-0.39018682152012185 -0.5 0.15085424616928578
0.34210297320199157 -0.5 -0.4839904107842643
-0.32722292718103096 -0.5 -0.005846598861669383
0.7104369537911435 -0.5 0.13018804189963396
-0.022998102231405415 -0.5 -0.03911986439484327
-0.3349663406670689 -0.5 0.35458952783043285
0.9329215506033133 -0.5 -0.27452257141653946
0.12441123574842394 -0.5 0.24091929014798086
-0.2834073986085419 -0.5 0.3898638592626441
-0.4937188053224517 -0.5 -0.4817469891769952
0.7799927684144228 -0.5 -0.25432549064297183
-0.09026812881465207 -0.5 0.2517085192072295
0.5916719118925833 -0.5 0.20526299518653723
1.319533985628238 -0.5 0.195481600030174
1.1463226369041533 -0.5 0.4704821275775075
0.7905033891444415 -0.5 -0.2597474894621338
0.0017388347021376482 -0.5 -0.48136590051843775
0.2778316444558182 -0.5 0.20358063384159475
0.2783679219135058 -0.5 0.24047101182615727
1.2845292610719377 -0.5 -0.3325152435370655
1.2213032800854313 -0.5 0.2600509167509627
0.5771715937554778 -0.5 0.21603392042707759
0.6439078049966955 -0.5 0.1457526998345885
-0.3952752092007956 -0.5 0.48610936340198907
1.2083225492910206 -0.5 0.38597441970036406
1.2095678285349403 -0.5 0.03657615120515312
0.22350242799456677 -0.5 -0.27619311436806127
0.2888829606102177 -0.5 -0.3575588146717946
1.2135245690997432 -0.5 -0.03308553990769514
0.31187043619552535 -0.5 0.03258242888769003
0.291068301013238 -0.5 -0.20064797507138987
0.41441664458918326 -0.5 -0.1293316598634472
-0.009616123710639135 -0.5 -0.37586292593470305
0.36493871433884983 -0.5 -0.03212079728736272
0.4076288496907794 -0.5 -0.15582826696162566
1.024073712128964 -0.5 0.48647007514643026
0.5756744584834157 -0.5 0.4342383121689367
-0.38766707635849573 -0.5 0.12818996342349376
1.4504308680353832 -0.5 0.34249213732135797
0.9132701734818907 -0.5 -0.4982350265592629
-0.1103423029649866 -0.5 0.3616508001479969
1.4556670134981826 -0.5 0.3540689852347142
-0.3831632546516597 -0.5 0.09769514874262974
1.1196566142797886 -0.5 0.3947357090866409
-0.3737338521955089 -0.5 0.09920463307205585
0.27351276836544836 -0.5 0.12902560903485472
-0.3765135327486018 -0.5 0.23521323531588745
1.0376237398524868 -0.5 -0.28713344220425707
0.9577687222049454 -0.5 0.32305912172020657
1.4414219198211724 -0.5 0.3898932378797755
1.2318594973353443 -0.5 -0.3123773853114755
0.9745978662917463 -0.5 -0.38527323667126046
1.3038111214619854 -0.5 -0.44208272816008654
0.5574598777780135 -0.5 0.18236872942489757
0.7702437982675336 -0.5 -0.4927861347977922
1.496714053807056 -0.5 0.1346161619262446
0.457910777986952 -0.5 0.47026710849401654
0.7633147227925219 -0.5 -0.3583050305161176
0.46678846179401634 -0.5 -0.494596568982836
0.7101285744650618 -0.5 -0.2872900947928416
-0.08378834912007949 -0.5 -0.4607437664758012
1.0117896654229328 -0.5 0.013745279955111323
-0.2700262417515451 -0.5 0.49346583145674816
0.48301158808139233 -0.5 0.3609338844741745
0.5897007164944532 -0.5 -0.09332292315629653
0.4600318533875918 -0.5 0.171665046220004
0.22981794849568726 -0.5 -0.3421944080313266
-0.31173739779999 -0.5 -0.4727175165401264
0.32372757809835306 -0.5 -0.4293444429906549
0.10667893777619541 -0.5 0.09728654792179492
0.86411926552145 -0.5 0.4105294102501026
-0.2599472865211556 -0.5 -0.36147279244248587
1.2136181222127245 -0.5 -0.21880189535174532
0.47031804394757404 -0.5 -0.03897361461613125
0.09994343627448865 -0.5 0.3517622220551784
1.4350553650143978 -0.5 0.3142737724071901
-0.3899765561279307 -0.5 0.472002889814908
-0.08851914368746305 -0.5 0.13391755487889523
0.13976737143708395 -0.5 0.2578111286386924
1.1306304283716406 -0.5 -0.24808519646588956
-0.4643533257734709 -0.5 -0.47366478368402665
0.5016366645412524 -0.5 0.4822948971295894
-0.4016161497334847 -0.5 0.34451906551554756
0.29846335999492246 -0.5 0.3449047722327998
0.1675895215173182 -0.5 0.03499072066620801
1.4866772074498782 -0.5 -0.3131134206435139
0.8044010723655002 -0.5 0.21442548498289127
0.8197168148819411 -0.5 -0.0454141797729396
0.45265144321427075 -0.5 -0.3587762639391471
0.13539975002479498 -0.5 0.30504989661783377
0.9531234155044732 -0.5 -0.2026993069244709
0.947447523607736 -0.5 0.36606278490475275
0.7611792183944717 -0.5 0.36471550312588663
0.5717935165365384 -0.5 0.26607382644494415
1.2003509038854747 -0.5 -0.01966648836589746
-0.46703478825880995 -0.5 -0.10497619114471679
1.2319011691434316 -0.5 -0.3329949453785974
-0.2816410945398289 -0.5 0.4497099294871846
0.185379899231783 -0.5 -0.32025913293628694
1.4264780823951106 -0.5 -0.22806077541981296
0.015060436216611128 -0.5 -0.46828994280009006
0.8420442259004006 -0.5 -0.13231755287572589
0.2673128143915058 -0.5 0.4343914263328481
0.43495486920799853 -0.5 0.3255669947596297
0.41063103311649063 -0.5 -0.2627194751941604
0.7709213345502679 -0.5 -0.07471229762633103
1.2759071856589153 -0.5 0.11206589234803899
-0.3805024269021047 -0.5 0.493696998329309
0.9265184563829916 -0.5 -0.20761833366448845
1.0771274734054204 -0.5 -0.3067607049688019
1.0681916033685792 -0.5 -0.16828934826734898
0.12356669901104578 -0.5 -0.300176737733179
0.7590281737444056 -0.5 0.2908009627804967
1.3919164932306536 -0.5 -0.2238200225837591
0.743590174866172 -0.5 -0.46965059322331804
1.0984718137307314 -0.5 -0.020973803006922198
0.6281596431229559 -0.5 0.26367477800751915
-0.3401827765405787 -0.5 0.35344056613658204
-0.14718044469987768 -0.5 0.07220617574129395
0.5750818996452649 -0.5 0.10224200727634458
0.8941294742970591 -0.5 0.37225355651945835
0.5098269708904082 -0.5 -0.42749790399374366
1.1488030380824454 -0.5 0.3708300600608555
0.21860660520633268 -0.5 0.4303437065281358
1.1976843606836056 -0.5 0.44735397102313745
1.2107756475822042 -0.5 0.2630346027324133
-0.36412486175835124 -0.5 0.4562544268891977
1.036949739602207 -0.5 0.0493932793381362
0.7325186833407544 -0.5 -0.19986030307615998
-0.34799542959020746 -0.5 0.3420752484363736
-0.2747338239608279 -0.5 0.17883094456959103
-0.3636060468735307 -0.5 0.09455356259814007
1.3303279455243036 -0.5 -0.47845136413839173
0.08868412026367278 -0.5 -0.17292389195765756
0.004425656628434194 -0.5 0.14475553577165068
-0.3228765983254718 -0.5 -0.31845258565095824
0.8902800815231056 -0.5 0.08533038195731335
0.8167363525853908 -0.5 0.15891916446874055
-0.061536884197424646 -0.5 -0.45800573466060834
0.7128633851635913 -0.5 0.26546172641563204
0.5399622324413422 -0.5 -0.2558435637451858
0.8255129133408043 -0.5 -0.19705428429969418
0.01946563941959356 -0.5 -0.2547227218454121
1.1645060891974626 -0.5 0.1182800910959837
0.5643526669382717 -0.5 -0.0642896732677779
0.6208878709992347 -0.5 -0.08735118395688479
-0.34834050621256263 -0.5 0.34351215122981105
0.18607756720750168 -0.5 -0.36108710208270867
-0.01399811657975314 -0.5 -0.3346546429057702
0.8493916439693032 -0.5 -0.17614307711411403
0.3990857278848705 -0.5 -0.18361313682968594
0.643560963925395 -0.5 0.08935196259949174
0.5961997017692409 -0.5 0.48537109203396867
1.4772309652538245 -0.5 0.38787715480078966
0.257564456885365 -0.5 0.381119117347795
0.17246649135051295 -0.5 0.21671975661821086
1.124329921205408 -0.5 0.05360715875710853
0.3956455001946606 -0.5 0.33426164870959185
0.6029309140814627 -0.5 0.03495388650540332
0.6906436802497977 -0.5 0.12542950062962865
-0.11115644996914953 -0.5 -0.4662289364752261
-0.059644302486062006 -0.5 0.3553375724401756
1.0799723466799682 -0.5 0.2500179091930922
0.15921650632747686 -0.5 -0.1791153366067587
0.6964555835697788 -0.5 -0.15508360232708795
1.303883717348781 -0.5 0.003492651290942339
-0.20939366555762784 -0.5 -0.49558239318516495
1.3983208955418747 -0.5 0.06171492265190226
-0.25140981089372394 -0.5 -0.012712100402224036
0.8391994749416034 -0.5 -0.16155581861794321
0.3685800533067509 -0.5 -0.39752910295253174
1.0993696557330046 -0.5 -0.10528561823843219
-0.2792483836900743 -0.5 0.0984889844277711
1.208246410852863 -0.5 0.375760761531602
0.20773238515620718 -0.5 0.026679366413644323
0.2040127617725347 -0.5 0.21572177961525307
0.5483088029226972 -0.5 0.42686739599290713
-0.3203747504585297 -0.5 0.3077984768134646
0.08171724327917151 -0.5 -0.29036715782806577
-0.28767743600189966 -0.5 0.20341815629543158
0.12491511343649475 -0.5 0.24487328933955865
0.11649108158685806 -0.5 -0.27485064293400296
1.4922996396489265 -0.5 0.2523180772663637
0.670516647579644 -0.5 -0.1795993484567976
0.4781536033450311 -0.5 0.1435981928507566
-0.4647004611941419 -0.5 -0.33168005523341326
-0.43302916454580753 -0.5 -0.31008528310926464
-0.06746728704061544 -0.5 0.11100483167121011
-0.1016492722636575 -0.5 0.47736392926243953
-0.13984429815100907 -0.5 0.056861551715978065
0.08518133312194065 -0.5 0.1189363414518535
-0.24532504994066517 -0.5 0.09059730202301719
0.2307324614773849 -0.5 -0.10212915323794036
1.2509164094841132 -0.5 -0.14304553635865236
0.6947883980391789 -0.5 -0.10284725921571258
0.7107619347426244 -0.5 -0.040740631734099364
0.053143069387272535 -0.5 -0.32371798805270624
0.34302470680619823 -0.5 0.004585731734577436
1.2590134641276896 -0.5 -0.4330655657975965
1.3983719270917505 -0.5 -0.38269015851648713
0.920181645884093 -0.5 -0.023850650094117354
0.03984537316484649 -0.5 -0.3320008818243846
-0.29346423843348624 -0.5 -0.3951251096056456
1.2348993129364663 -0.5 0.39165717048903004
0.04523742580881551 -0.5 -0.46323525989153913
-0.17864479913046472 -0.5 -0.030553900373959775
0.9218356636513625 -0.5 -0.19075534247064618
0.6428566593585672 -0.5 -0.24594286948718846
0.33230093625561397 -0.5 -0.22621860501686009
0.5302125041597159 -0.5 -0.27897996971533057
0.048652917286169606 -0.5 -0.4647100896301074
0.320623185923963 -0.5 0.1633049441035065
1.4000288482007794 -0.5 0.1814889595482947
0.6615581693926651 -0.5 0.05638988847830939
1.268579149488945 -0.5 -0.3228631583648718
-0.24904372151782517 -0.5 0.29945895949054624
0.9780095996298541 -0.5 -0.053177061309468976
0.7845596258424015 -0.5 -0.019556984875808148
1.406486083007149 -0.5 0.2981376985389327
-0.3679832246064345 -0.5 0.1523202341479174
1.2872790187152423 -0.5 0.1864211416482896
0.45642380124805615 -0.5 0.36090980519979854
0.3184156748047293 -0.5 0.1953269406110899
-0.43211425859634756 -0.5 0.19680461855244125
1.3952011876131545 -0.5 0.1621229322342732
0.9191953588234385 -0.5 0.3393978522552211
1.195711764274918 -0.5 -0.2761237055883652
-0.45258457044044365 -0.5 -0.04254297820623876
0.934788786045933 -0.5 0.12713051333402747
-0.36766606352661 -0.5 -0.2866675622518725
0.47314934001422726 -0.5 -0.034295621024655776
1.2020873519383268 -0.5 -0.10441564822367089
1.434423868794066 -0.5 -0.17087882625267703
0.3549398093531879 -0.5 0.040947941656057196
0.8691304477044481 -0.5 0.4369551920431104
0.07023904885960985 -0.5 0.4369118770277496
0.5506729309970821 -0.5 0.011611453388756132
-0.01686060035888648 -0.5 0.2238966520805079
0.3228557463178878 -0.5 0.3036800156171461
0.056035369327116724 -0.5 0.0033255302623698135
1.3018111678719104 -0.5 -0.07900974701258623
0.3240217510493235 -0.5 0.34489640170479796
-0.2528910777750599 -0.5 -0.39505784027496693
1.0149581283653946 -0.5 0.35177908633401356
0.39734711087352736 -0.5 0.31179594788341713
0.30543459265886974 -0.5 -0.1515501637560962
0.12653621893503386 -0.5 0.18528182897233236
0.6330038093255461 -0.5 -0.3470236731154842
0.6159461429349837 -0.5 -0.17237372086327984
0.15996453093957963 -0.5 -0.09813967485875819
0.09184534164904501 -0.5 0.2912007499030912
0.7772577877399596 -0.5 -0.11033877775936018
0.9207338289425533 -0.5 0.1489245659490258
-0.34074464254651193 -0.5 -0.03556970446682284
1.433950056646858 -0.5 -0.012661059345897119
-0.19786736486948042 -0.5 0.1914335224715824
1.0545254105552662 -0.5 -0.21578072180371477
-0.03632055950882784 -0.5 -0.27249559781350496
0.21643376125357827 -0.5 -0.34815497809651486
0.6277936494836327 -0.5 0.037345726853309946
0.19047203166115656 -0.5 0.4632690088098711
-0.2782105179065324 -0.5 -0.4648437900753064
-0.3564245665842083 -0.5 0.07532191009590794
0.6569946499258033 -0.5 -0.31149147089577567
0.8846703309373531 -0.5 0.2722280085126265
0.5406797582489034 -0.5 -0.49414499124324507
0.39078808676811727 -0.5 -0.32561883591206897
0.7730236756380628 -0.5 0.24140576328723917
0.8594812460072707 -0.5 -0.2833038771298414
0.8427955308705 -0.5 -0.37081592134511177
1.0943543361639627 -0.5 0.4840725322161946
-0.055113228037468875 -0.5 0.1940770889124247
0.3656294994833811 -0.5 0.4414577271657728
0.21398891486764438 -0.5 0.07002684055638164
-0.4993702558680726 -0.5 0.24448711953705604
-0.4124505983290305 -0.5 -0.07267615270713157
-0.18765626998081064 -0.5 -0.0424860689351525
0.37261954708458345 -0.5 -0.20445787214964184
0.6363269006458889 -0.5 -0.24499795959057358
0.4260272519990709 -0.5 0.25981295798744264
0.34867509473388725 -0.5 -0.24916499349644505
0.5822360843320025 -0.5 -0.2911269823660777
0.928347490074759 -0.5 0.44268957814391297
0.021173039446830355 -0.5 -0.2605726293056403
0.8617895678729284 -0.5 0.22699492571659396
-0.03821071255106667 -0.5 -0.13483686459854194
0.33673340217997993 -0.5 0.3372725243091401
0.37567539454689314 -0.5 -0.32232074339454786
-0.408750287925731 -0.5 0.15395633196921366
-0.11823554902770894 -0.5 -0.43979743807295457
0.21973203628395988 -0.5 -0.23589190401877058
-0.17280231783229305 -0.5 0.013595160912468596
0.9573785044724488 -0.5 -0.2808536874764187
0.7690222470161898 -0.5 0.2512314823825602
-0.3340499299009938 -0.5 0.2749454632854986
0.5628021147903632 -0.5 -0.3184362820744039
1.026538256886932 -0.5 0.07471095723048349
1.4585619312135467 -0.5 0.2949161448106046
1.1784163263739205 -0.5 -0.1748123090343522
0.8814433989086614 -0.5 -0.49664467810167423
1.0547899431030685 -0.5 0.4660397440139432
0.6210490340509505 -0.5 -0.188927567586754
0.31524939081969916 -0.5 0.21638576896887318
0.4319111559516946 -0.5 -0.4356439469067732
-0.02621761061587491 -0.5 0.48719900725907483
0.9961949495045257 -0.5 0.09291154676540314
0.5229526721587221 -0.5 0.04859945424376577
0.3260213263665621 -0.5 0.20281233280442967
0.4588485281602923 -0.5 0.14481974509471252
-0.4926984895675883 -0.5 0.1581942808186536
1.0524900892992102 -0.5 -0.03668107618225791
0.5310004560385513 -0.5 0.4730914159911367
-0.347142581216769 -0.5 -0.37995237257671655
0.675541431189081 -0.5 0.18850978138532481
1.240926630257251 -0.5 -0.4667460906689541
-0.2618573052209374 -0.5 -0.3465330627786076
0.161927826064153 -0.5 0.19003075005175873
-0.3544285977809176 -0.5 0.38955479813874117
0.9765544996723114 -0.5 -0.4767489514798029
-0.13610428369558503 -0.5 0.32755572433187474
0.9381269559537604 -0.5 0.11941278199380301
-0.42773766215846165 -0.5 -0.22156607668271022
0.024510153977867155 -0.5 -0.08029694815550381
1.0924231502815722 -0.5 -0.050296940719638084
1.3060040132979291 -0.5 -0.23288756464495242
